-5.910099999999999909e+00 1.367326400000000035e+02 -6.184870000000000090e+00
-5.976960000000000051e+00 1.382794000000000096e+02 -1.280931999999999960e+01
-4.144610000000000127e+00 1.396464400000000126e+02 -1.904446000000000083e+01
-4.004940000000000389e+00 1.349405800000000113e+02 0.000000000000000000e+00
-6.359169999999999767e+00 1.348459900000000005e+02 1.060270000000000046e+00
-6.447000000000000064e+00 1.367083900000000085e+02 -6.184870000000000090e+00
-4.601679999999999993e+00 1.369131800000000112e+02 -1.613960000000000061e+00
-6.989589999999999748e+00 1.367951500000000067e+02 2.689820000000000100e+00
-7.040320000000000356e+00 1.377880700000000047e+02 -2.980360000000000120e+00
-5.236819999999999808e+00 1.394914599999999893e+02 -1.071021000000000001e+01
-5.212119999999999642e+00 1.388335999999999899e+02 -4.366100000000000314e+00
-5.139300000000000423e+00 1.368940699999999993e+02 1.613949999999999996e+00
-7.579830000000000290e+00 1.377317199999999957e+02 4.063850000000000406e+00
-7.637129999999999974e+00 1.387728600000000085e+02 -2.183320000000000149e+00
-5.755219999999999558e+00 1.387625400000000013e+02 -5.729820000000000135e+00
-5.718630000000000102e+00 1.378803900000000056e+02 5.419199999999999573e-01
-8.122600000000000264e+00 1.377341000000000122e+02 2.709449999999999914e+00
-6.258630000000000138e+00 1.378257900000000120e+02 -2.980360000000000120e+00
-6.258630000000000138e+00 1.378257800000000088e+02 2.980350000000000055e+00
-6.849849999999999994e+00 1.388139299999999992e+02 -2.183320000000000149e+00
-6.847310000000000230e+00 1.387625600000000077e+02 4.366089999999999804e+00
-7.447869999999999990e+00 1.397798300000000040e+02 -2.473879999999999857e+00
-7.340230000000000032e+00 1.377596100000000092e+02 3.522120000000000140e+00
-7.935889999999999667e+00 1.386863299999999981e+02 4.911640000000000228e+00
-8.545740000000000336e+00 1.397216300000000047e+02 2.199019999999999975e+00
-2.126433000000000106e+01 1.393697400000000073e+02 2.214729999999999865e+00
-2.181311000000000178e+01 1.392956200000000138e+02 1.384239999999999915e+00
-2.290473000000000070e+01 1.391095599999999877e+02 2.214729999999999865e+00
-2.327441999999999922e+01 1.379727000000000032e+02 4.672250000000000014e+00
-2.399727000000000032e+01 1.389293800000000090e+02 -1.937910000000000021e+00
-2.381898999999999944e+01 1.378972599999999886e+02 4.122740000000000293e+00
-2.437048000000000059e+01 1.378600600000000043e+02 8.246599999999999486e-01
-2.490518000000000143e+01 1.377274600000000078e+02 3.298360000000000181e+00
-0.000000000000000000e+00 1.355329999999999870e+02 -3.508276999999999646e+01
-0.000000000000000000e+00 1.378812100000000100e+02 -4.153034999999999854e+01
-0.000000000000000000e+00 1.396398000000000081e+02 -4.903800999999999988e+01
-5.371099999999999763e-01 1.367733499999999935e+02 -3.426019999999999754e+01
-5.389500000000000401e-01 1.372423200000000065e+02 -4.016528000000000276e+01
-5.472399999999999487e-01 1.393515299999999968e+02 -4.679581999999999908e+01
-1.073069999999999968e+00 1.366241100000000017e+02 -3.054006000000000043e+01
-1.085029999999999939e+00 1.381473200000000077e+02 -3.692070999999999970e+01
7.807199999999999696e-01 1.376346399999999903e+02 -4.561899999999999977e+01
7.609099999999999753e-01 1.341430699999999945e+02 -3.641503000000000156e+01
-1.616689999999999960e+00 1.372228399999999908e+02 -3.237713999999999714e+01
-1.644970000000000043e+00 1.396233200000000068e+02 -3.908476999999999890e+01
2.442199999999999926e-01 1.399260099999999909e+02 -4.821461000000000041e+01
2.426000000000000101e-01 1.390016500000000121e+02 -4.127320999999999884e+01
2.369100000000000095e-01 1.357371100000000013e+02 -3.428381000000000256e+01
-2.196210000000000218e+00 1.398035700000000077e+02 -3.444033999999999907e+01
-3.050100000000000033e-01 1.398049499999999910e+02 -4.542549999999999955e+01
-3.002600000000000269e-01 1.376307500000000061e+02 -3.881598000000000326e+01
-2.950099999999999945e-01 1.352225300000000061e+02 -3.218345999999999663e+01
-2.724380000000000024e+00 1.387334700000000112e+02 -3.015950000000000131e+01
-8.510600000000000387e-01 1.393191400000000044e+02 -4.018023000000000167e+01
-8.422500000000000542e-01 1.378762800000000084e+02 -3.396200000000000330e+01
-1.394099999999999895e+00 1.389097299999999962e+02 -3.392846999999999724e+01
-0.000000000000000000e+00 1.277099900000000048e+02 -9.471618999999999744e+01
-0.000000000000000000e+00 1.182513000000000005e+02 -9.550198000000000320e+01
-5.107699999999999463e-01 1.300646700000000067e+02 -9.488898000000000366e+01
-4.665699999999999847e-01 1.188108699999999942e+02 -9.480378000000000327e+01
-1.072519999999999918e+00 1.365541100000000085e+02 -9.438125999999999749e+01
-9.986199999999999521e-01 1.271459399999999960e+02 -9.546681999999999846e+01
6.707600000000000229e-01 1.182493900000000053e+02 -9.550198000000000320e+01
7.289600000000000524e-01 1.285111400000000117e+02 -9.531189000000000533e+01
-1.630339999999999900e+00 1.383812900000000070e+02 -9.524683000000000277e+01
-1.497910000000000075e+00 1.271410300000000007e+02 -9.546681999999999846e+01
2.117900000000000060e-01 1.213461599999999976e+02 -9.643683000000000050e+01
2.308099999999999874e-01 1.322447799999999916e+02 -9.529040999999999428e+01
-2.111590000000000078e+00 1.344169200000000046e+02 -9.566939999999999600e+01
-1.936150000000000038e+00 1.232489800000000031e+02 -9.561348999999999876e+01
-2.643199999999999994e-01 1.211564599999999956e+02 -9.667490999999999701e+01
-2.829400000000000248e-01 1.296917300000000068e+02 -9.539901999999999305e+01
-3.053500000000000103e-01 1.399625100000000089e+02 -9.471744999999999948e+01
-2.569529999999999870e+00 1.308482999999999947e+02 -9.547835999999999501e+01
-2.370800000000000018e+00 1.207280999999999977e+02 -9.557774000000000569e+01
-7.827399999999999913e-01 1.281355299999999886e+02 -9.581582000000000221e+01
-8.453800000000000203e-01 1.383883099999999899e+02 -9.524683000000000277e+01
-3.264860000000000095e+00 1.385391700000000128e+02 -9.497494000000000369e+01
-3.023330000000000073e+00 1.282902100000000019e+02 -9.556403000000000247e+01
-2.763250000000000206e+00 1.172542799999999943e+02 -9.510415999999999315e+01
-1.258580000000000032e+00 1.254064300000000003e+02 -9.610224999999999795e+01
-1.352859999999999951e+00 1.348013500000000136e+02 -9.514074999999999704e+01
-3.775980000000000114e+00 1.373290399999999920e+02 -9.494983000000000573e+01
-3.472789999999999822e+00 1.263024099999999947e+02 -9.486638999999999555e+01
-3.218539999999999957e+00 1.170555899999999951e+02 -9.533428000000000679e+01
-1.745749999999999913e+00 1.250221899999999948e+02 -9.659399000000000513e+01
-1.865609999999999991e+00 1.336057099999999878e+02 -9.508957999999999799e+01
-4.091310000000000002e+00 1.301874500000000126e+02 -9.463342000000000098e+01
-3.798779999999999824e+00 1.208791300000000035e+02 -9.534045999999999310e+01
-2.208390000000000075e+00 1.234319200000000052e+02 -9.537127999999999872e+01
-2.375690000000000079e+00 1.327827499999999930e+02 -9.450977000000000317e+01
-4.692700000000000315e+00 1.327210499999999911e+02 -9.450977000000000317e+01
-4.362230000000000274e+00 1.233745700000000056e+02 -9.537127999999999872e+01
-2.600719999999999921e+00 1.191894099999999952e+02 -9.589638999999999669e+01
-2.785979999999999901e+00 1.276795999999999935e+02 -9.471618999999999744e+01
-3.027120000000000033e+00 1.387308299999999974e+02 -9.470265000000000555e+01
-5.245849999999999902e+00 1.335157299999999907e+02 -9.508957999999999799e+01
-4.808309999999999640e+00 1.223795899999999932e+02 -9.500059000000000253e+01
-3.188379999999999992e+00 1.238241100000000046e+02 -9.646980000000000643e+01
-3.429809999999999803e+00 1.332001500000000078e+02 -9.561356000000000677e+01
-5.675760000000000360e+00 1.313110700000000008e+02 -9.470579999999999643e+01
-5.272700000000000387e+00 1.219860999999999933e+02 -9.548081000000000529e+01
-3.640010000000000190e+00 1.226448199999999957e+02 -9.633791999999999689e+01
-3.947280000000000122e+00 1.329977399999999932e+02 -9.587501000000000317e+01
-6.350329999999999586e+00 1.346584900000000005e+02 -9.514074999999999704e+01
-5.861509999999999998e+00 1.242931200000000018e+02 -9.573851000000000511e+01
-4.030850000000000044e+00 1.199292599999999993e+02 -9.652316000000000429e+01
-4.343899999999999650e+00 1.292434199999999862e+02 -9.590758999999999901e+01
-4.667489999999999917e+00 1.388711099999999874e+02 -9.443000999999999578e+01
-6.991290000000000227e+00 1.368285400000000038e+02 -9.548859000000000208e+01
-6.378230000000000288e+00 1.248301900000000018e+02 -9.500388999999999839e+01
-4.531010000000000204e+00 1.206911599999999964e+02 -9.714992999999999768e+01
-4.984639999999999738e+00 1.327742599999999982e+02 -9.613608000000000686e+01
-7.559339999999999726e+00 1.373592700000000093e+02 -9.467989000000000033e+01
-6.942960000000000242e+00 1.261592500000000001e+02 -9.486638999999999555e+01
-5.004929999999999879e+00 1.206724399999999946e+02 -9.714992999999999768e+01
-5.407779999999999809e+00 1.303854800000000012e+02 -9.599156000000000688e+01
-7.646090000000000053e+00 1.296538400000000024e+02 -9.514418999999999471e+01
-6.950499999999999901e+00 1.178587799999999959e+02 -9.573399000000000569e+01
-5.356449999999999712e+00 1.179582400000000035e+02 -9.729420000000000357e+01
-5.750849999999999795e+00 1.266434699999999935e+02 -9.596538999999999930e+01
-6.315190000000000303e+00 1.390713199999999858e+02 -9.581377999999999417e+01
-8.800000000000000711e+00 1.398720099999999888e+02 -9.444244000000000483e+01
-8.155179999999999652e+00 1.296228199999999902e+02 -9.514418999999999471e+01
-7.570240000000000080e+00 1.203255599999999959e+02 -9.581465000000000032e+01
-6.229510000000000325e+00 1.262425400000000053e+02 -9.646249000000000251e+01
-6.743219999999999992e+00 1.366529999999999916e+02 -9.575741999999999621e+01
-9.164580000000000837e+00 1.370749399999999980e+02 -9.494983000000000573e+01
-8.194969999999999644e+00 1.225724900000000019e+02 -9.451891000000000531e+01
-6.642649999999999721e+00 1.246676300000000026e+02 -9.683929999999999438e+01
-9.885149999999999437e+00 1.396133399999999938e+02 -9.471744999999999948e+01
-8.936870000000000758e+00 1.262202099999999945e+02 -9.461812999999999363e+01
-8.393330000000000624e+00 1.185435300000000041e+02 -9.636382000000000403e+01
-7.242399999999999949e+00 1.265669299999999993e+02 -9.596538999999999930e+01
-7.963840000000000252e+00 1.391748399999999890e+02 -9.554026000000000352e+01
-1.033008000000000060e+01 1.381920800000000042e+02 -9.497494000000000369e+01
-9.506080000000000751e+00 1.271689700000000016e+02 -9.496675999999999362e+01
-7.420779999999999710e+00 1.213286700000000025e+02 -9.777670999999999424e+01
-8.076670000000000016e+00 1.320524599999999964e+02 -9.691706000000000643e+01
-1.069968000000000075e+01 1.359523499999999956e+02 -9.464921999999999969e+01
-9.898690000000000211e+00 1.257747399999999942e+02 -9.511430000000000007e+01
-9.294340000000000046e+00 1.180957800000000049e+02 -9.682975000000000421e+01
-7.796739999999999782e+00 1.197559399999999954e+02 -9.809550000000000125e+01
-8.505760000000000431e+00 1.306462199999999996e+02 -9.709897999999999740e+01
-1.071395000000000053e+01 1.296236399999999946e+02 -9.488898000000000366e+01
-9.835860000000000269e+00 1.190000500000000017e+02 -9.566212000000000160e+01
-8.240360000000000795e+00 1.193391600000000068e+02 -9.856601999999999464e+01
-9.018739999999999313e+00 1.306118199999999945e+02 -9.709897999999999740e+01
-1.119064999999999976e+01 1.292083299999999895e+02 -9.539901999999999305e+01
-1.028687000000000040e+01 1.187731500000000011e+02 -9.589638999999999669e+01
-8.835610000000000852e+00 1.210411100000000033e+02 -9.801519000000000403e+01
-9.400900000000000034e+00 1.287851900000000001e+02 -9.616131000000000029e+01
-1.194509000000000043e+01 1.318920300000000054e+02 -9.503055999999999415e+01
-1.117239000000000004e+01 1.233602599999999967e+02 -9.646980000000000643e+01
-9.473679999999999879e+00 1.231214099999999974e+02 -9.695547000000000537e+01
-1.020795000000000030e+01 1.326641400000000033e+02 -9.587501000000000317e+01
-1.241004000000000040e+01 1.312845299999999895e+02 -9.580899999999999750e+01
-1.134601999999999933e+01 1.200284099999999938e+02 -9.581465000000000032e+01
-9.551959999999999340e+00 1.180752300000000048e+02 -9.682975000000000421e+01
-1.023745000000000083e+01 1.265487499999999983e+02 -9.571629000000000076e+01
-1.106250000000000000e+01 1.367475300000000118e+02 -9.521939000000000419e+01
-1.299884999999999913e+01 1.319795699999999954e+02 -9.477034000000000447e+01
-1.196789000000000058e+01 1.215120500000000021e+02 -9.548081000000000529e+01
-1.047247999999999912e+01 1.234216499999999996e+02 -9.646980000000000643e+01
-1.126545999999999914e+01 1.327672100000000057e+02 -9.561356000000000677e+01
-1.295968000000000053e+01 1.264876699999999943e+02 -9.546681999999999846e+01
-1.118096000000000068e+01 1.259006399999999957e+02 -9.646249000000000251e+01
-1.160186000000000028e+01 1.250642200000000059e+02 -9.585580000000000211e+01
-1.957685000000000031e+01 1.176170999999999935e+02 -9.746262000000000114e+01
-2.166936000000000107e+01 1.271048700000000053e+02 -9.641467000000000098e+01
-2.220082999999999984e+01 1.272050500000000000e+02 -9.616131000000000029e+01
-2.046459000000000117e+01 1.172568399999999968e+02 -9.613029000000000224e+01
-1.973340999999999923e+01 1.228565300000000065e+02 -9.573851000000000511e+01
-2.391937000000000069e+01 1.339440199999999948e+02 -9.682903000000000304e+01
-2.194719999999999871e+01 1.229002299999999934e+02 -9.683929999999999438e+01
-1.971452999999999989e+01 1.197341799999999949e+02 -9.643683000000000050e+01
-2.390499000000000152e+01 1.308912799999999947e+02 -9.587501000000000317e+01
-2.207809999999999917e+01 1.208881800000000055e+02 -9.609681999999999391e+01
-2.008559999999999945e+01 1.190691400000000044e+02 -9.557774000000000569e+01
-2.190368000000000137e+01 1.298468900000000019e+02 -9.606772999999999740e+01
-2.344695000000000107e+01 1.255907100000000014e+02 -9.631828000000000145e+01
-2.081445000000000078e+01 1.205028199999999998e+02 -9.524088000000000420e+01
-2.298832000000000164e+01 1.330882000000000005e+02 -9.651457999999999515e+01
-2.371971999999999881e+01 1.243431300000000022e+02 -9.621412999999999727e+01
-2.258480000000000132e+01 1.277587699999999984e+02 -9.701351999999999975e+01
-2.387491999999999948e+01 1.225403400000000005e+02 -9.683929999999999438e+01
-2.162644999999999840e+01 1.195958499999999987e+02 -9.619836999999999705e+01
-2.357561000000000107e+01 1.303748199999999997e+02 -9.665709999999999980e+01
-2.469557000000000002e+01 1.241530000000000058e+02 -9.621412999999999727e+01
-2.329629999999999868e+01 1.260024200000000008e+02 -9.581582000000000221e+01
-2.494966000000000150e+01 1.229059400000000011e+02 -9.610224999999999795e+01
-2.216967999999999961e+01 1.173297100000000057e+02 -9.566212000000000160e+01
-2.495981000000000094e+01 1.320960699999999974e+02 -9.566939999999999600e+01
-2.433386000000000138e+01 1.175037800000000061e+02 -9.652316000000000429e+01
-2.373290000000000077e+01 1.229542500000000018e+02 -9.634830999999999790e+01
-2.342907999999999902e+01 1.188698299999999932e+02 -9.667490999999999701e+01
-2.492383999999999844e+01 1.264536700000000025e+02 -9.480647999999999342e+01
-2.409058999999999884e+01 1.173602000000000061e+02 -9.675858999999999810e+01
-0.000000000000000000e+00 1.146853499999999997e+02 2.777178999999999931e+01
-4.492700000000000027e-01 1.144062799999999953e+02 2.889635000000000176e+01
-4.572300000000000253e-01 1.164309499999999957e+02 2.458909999999999840e+01
-1.080709000000000053e+01 9.448601999999999634e+01 -5.325970999999999833e+01
-9.932090000000000529e+00 9.489579000000000519e+01 -5.269859999999999900e+01
-1.162423000000000073e+01 9.501448000000000604e+01 -5.213564999999999827e+01
-1.262723000000000084e+01 9.995483000000000118e+01 -5.334398999999999802e+01
-1.261053000000000068e+01 9.676509000000000071e+01 -5.290075999999999823e+01
-1.326648999999999923e+01 9.877012999999999465e+01 -5.326782999999999646e+01
-1.138405999999999985e+01 9.441823999999999728e+01 -5.325970999999999833e+01
-1.235632999999999981e+01 9.920256000000000540e+01 -5.267987999999999715e+01
-1.380772999999999939e+01 9.701816999999999780e+01 -5.213271999999999906e+01
-1.212526000000000082e+01 9.432591999999999643e+01 -5.325970999999999833e+01
-1.414390000000000036e+01 9.665766999999999598e+01 -5.270906000000000091e+01
-1.314864000000000033e+01 9.920481999999999800e+01 -5.248349000000000331e+01
-1.520322999999999958e+01 1.011234699999999975e+02 -5.261088999999999771e+01
-1.322939000000000043e+01 9.689132999999999640e+01 -5.251715000000000089e+01
-1.487091000000000030e+01 9.633829000000000065e+01 -5.309226999999999919e+01
-1.344426999999999950e+01 9.566097000000000605e+01 -5.261395999999999873e+01
-1.648010999999999981e+01 1.040513200000000040e+02 -5.315758999999999901e+01
-1.504663000000000039e+01 9.500069000000000585e+01 -5.337104000000000070e+01
-1.414565999999999946e+01 9.786157000000000039e+01 -5.260238999999999976e+01
-1.597621999999999964e+01 9.836817999999999529e+01 -5.326782999999999646e+01
-1.465958000000000006e+01 9.867852999999999497e+01 -5.307204999999999728e+01
-1.751198000000000121e+01 1.052114299999999929e+02 -5.277201000000000164e+01
-1.598766999999999960e+01 9.605338999999999317e+01 -5.328356999999999744e+01
-1.543937000000000026e+01 1.011919800000000009e+02 -5.240999999999999659e+01
-1.698436999999999841e+01 9.962434000000000367e+01 -5.274960999999999700e+01
-1.541798999999999964e+01 9.845721000000000345e+01 -5.326782999999999646e+01
-1.830198999999999998e+01 1.048656799999999976e+02 -5.319046000000000163e+01
-1.672354999999999947e+01 9.582161999999999580e+01 -5.347466000000000008e+01
-1.602727000000000146e+01 9.978278000000000247e+01 -5.274960999999999700e+01
-1.828956000000000159e+01 1.024181300000000050e+02 -5.352586000000000155e+01
-1.609775000000000134e+01 9.776805000000000234e+01 -5.221367999999999654e+01
-1.977722999999999942e+01 1.082898299999999949e+02 -5.259441000000000344e+01
-1.811946999999999974e+01 9.921277999999999508e+01 -5.314607000000000170e+01
-1.697526999999999830e+01 1.006308099999999968e+02 -5.301205000000000211e+01
-1.836192000000000135e+01 1.088510299999999944e+02 -5.194507000000000119e+01
-1.998001000000000005e+01 1.070204499999999967e+02 -5.280552000000000135e+01
-1.845116000000000156e+01 9.883141000000000531e+01 -5.373922999999999917e+01
-1.747540000000000049e+01 1.011718099999999936e+02 -5.180611999999999995e+01
-2.013420999999999950e+01 1.055472100000000069e+02 -5.342656000000000205e+01
-1.857498999999999967e+01 9.737349000000000387e+01 -5.424363000000000312e+01
-1.820138000000000034e+01 1.029624100000000055e+02 -5.250189999999999912e+01
-2.037730000000000175e+01 1.045884400000000056e+02 -5.298132999999999981e+01
-1.878945999999999827e+01 9.643873999999999569e+01 -5.376359999999999673e+01
-1.738278000000000034e+01 9.612801000000000329e+01 -5.270906000000000091e+01
-1.919418999999999897e+01 1.061452799999999996e+02 -5.258100000000000307e+01
-2.082828999999999908e+01 1.047108699999999999e+02 -5.256248000000000076e+01
-1.938057999999999836e+01 9.743277999999999395e+01 -5.385392999999999830e+01
-1.750604999999999833e+01 9.468475999999999715e+01 -5.318207000000000306e+01
-1.900947000000000031e+01 1.028162800000000061e+02 -5.250189999999999912e+01
-2.143846999999999881e+01 1.056092799999999983e+02 -5.279270000000000351e+01
-1.976304999999999978e+01 9.735590999999999440e+01 -5.385392999999999830e+01
-1.896704000000000079e+01 1.003802199999999942e+02 -5.281157000000000323e+01
-2.051443000000000083e+01 1.085695500000000067e+02 -5.172823000000000349e+01
-2.181081999999999965e+01 1.053204599999999971e+02 -5.321547999999999945e+01
-2.012372999999999834e+01 9.717382999999999527e+01 -5.404889000000000010e+01
-1.832775000000000176e+01 9.495154999999999745e+01 -5.242417999999999978e+01
-2.040402999999999878e+01 1.057082199999999972e+02 -5.300419000000000125e+01
-2.199501000000000062e+01 1.139506999999999977e+02 -5.157959999999999923e+01
-2.393834000000000017e+01 1.133504199999999997e+02 -5.203495000000000203e+01
-2.220260999999999996e+01 1.051315500000000043e+02 -5.342656000000000205e+01
-2.048320999999999970e+01 9.699002000000000123e+01 -5.424363000000000312e+01
-1.956313000000000102e+01 9.925556000000000267e+01 -5.255107999999999890e+01
-2.134681000000000139e+01 1.083052200000000056e+02 -5.194507000000000119e+01
-2.387064000000000163e+01 1.108744200000000006e+02 -5.255525999999999698e+01
-2.210656000000000176e+01 1.026806200000000047e+02 -5.377720999999999663e+01
-1.995276000000000138e+01 9.917798000000000513e+01 -5.255107999999999890e+01
-2.195041000000000153e+01 1.091076099999999940e+02 -5.237084999999999724e+01
-2.408942000000000050e+01 1.097933799999999991e+02 -5.235562000000000182e+01
-2.210581000000000174e+01 1.007525600000000026e+02 -5.306837000000000160e+01
-1.968417000000000172e+01 9.589381000000000199e+01 -5.232504000000000133e+01
-2.207217999999999947e+01 1.075272800000000046e+02 -5.324193000000000353e+01
-2.353040000000000020e+01 1.052689799999999991e+02 -5.258100000000000307e+01
-2.169371999999999900e+01 9.705214999999999748e+01 -5.365876999999999697e+01
-2.015571999999999875e+01 9.627013999999999783e+01 -5.357057999999999964e+01
-2.208318999999999832e+01 1.054763599999999997e+02 -5.279270000000000351e+01
-2.419866000000000028e+01 1.155804799999999943e+02 -5.192855999999999739e+01
-2.314029000000000025e+01 1.016470499999999930e+02 -5.311688000000000187e+01
-2.014534000000000091e+01 9.437134000000000356e+01 -5.280353999999999814e+01
-2.254033000000000087e+01 1.055907700000000062e+02 -5.236910999999999916e+01
-2.429104999999999848e+01 1.137920500000000033e+02 -5.089509999999999934e+01
-2.353926999999999836e+01 1.015553900000000027e+02 -5.311688000000000187e+01
-2.184410000000000096e+01 9.424191000000000429e+01 -5.442701000000000278e+01
-2.148613999999999891e+01 9.875132000000000687e+01 -5.274960999999999700e+01
-2.325519999999999854e+01 1.068820400000000035e+02 -5.173416999999999888e+01
-2.388982000000000028e+01 1.012583800000000025e+02 -5.352586000000000155e+01
-2.233946999999999861e+01 9.468715000000000259e+01 -5.549137000000000342e+01
-2.204298000000000002e+01 9.942947999999999809e+01 -5.341239999999999810e+01
-2.404366999999999877e+01 1.084539999999999935e+02 -5.280749999999999744e+01
-2.337111000000000161e+01 9.734771000000000640e+01 -5.452718999999999738e+01
-2.269785999999999859e+01 1.005138199999999955e+02 -5.327080000000000126e+01
-2.478225000000000122e+01 1.097442400000000049e+02 -5.213481999999999772e+01
-2.460912000000000077e+01 1.007595799999999997e+02 -5.413776000000000010e+01
-2.184516999999999953e+01 9.500000000000000000e+01 -5.309226999999999919e+01
-2.390231999999999957e+01 1.039461000000000013e+02 -5.277201000000000164e+01
-2.251343999999999923e+01 9.617525999999999442e+01 -5.279643000000000086e+01
-2.413497999999999877e+01 1.013080599999999976e+02 -5.332148000000000110e+01
-2.401556000000000068e+01 9.907926999999999396e+01 -5.321233000000000146e+01
-2.447906000000000049e+01 9.928679999999999950e+01 -5.261088999999999771e+01
-2.375667999999999935e+01 9.475427999999999429e+01 -5.270906000000000091e+01
-2.412859999999999872e+01 9.466025999999999385e+01 -5.270906000000000091e+01
-0.000000000000000000e+00 1.091418199999999956e+02 -9.546236000000000388e+01
-0.000000000000000000e+00 1.016784700000000043e+02 -9.623663000000000523e+01
-4.226900000000000102e-01 1.076355700000000013e+02 -9.414564000000000021e+01
-3.928499999999999770e-01 1.000386900000000026e+02 -9.505841999999999814e+01
9.742100000000000204e-01 1.014846299999999957e+02 -9.643608000000000402e+01
-9.106699999999999795e-01 1.159479900000000043e+02 -9.515899000000000285e+01
-8.395299999999999985e-01 1.068903899999999965e+02 -9.498808999999999969e+01
-7.670500000000000096e-01 9.766216000000000008e+01 -9.464413000000000409e+01
5.745999999999999996e-01 1.012981300000000005e+02 -9.663517000000000223e+01
6.127000000000000224e-01 1.080142500000000041e+02 -9.522890999999999906e+01
-1.370379999999999932e+00 1.163162800000000061e+02 -9.470292999999999495e+01
-1.257079999999999975e+00 1.066995699999999943e+02 -9.519780000000000086e+01
-1.152749999999999941e+00 9.784403000000000361e+01 -9.445219000000000165e+01
1.764699999999999880e-01 1.011096699999999942e+02 -9.683388999999999669e+01
1.901599999999999957e-01 1.089539999999999935e+02 -9.567646999999999480e+01
-1.767479999999999940e+00 1.125121500000000054e+02 -9.458800999999999704e+01
-1.649699999999999944e+00 1.050146600000000063e+02 -9.556776999999999589e+01
-1.533530000000000060e+00 9.761942000000000519e+01 -9.610979000000000383e+01
-2.242399999999999949e-01 1.027843199999999939e+02 -9.652114000000000260e+01
-2.426300000000000123e-01 1.112151000000000067e+02 -9.612563000000000102e+01
-2.176060000000000105e+00 1.108115200000000016e+02 -9.503722000000000492e+01
-2.043559999999999821e+00 1.040642600000000044e+02 -9.659425000000000239e+01
-5.940800000000000525e-01 9.725148000000000081e+01 -9.649245999999999412e+01
-6.437800000000000189e-01 1.053865299999999934e+02 -9.665540000000000020e+01
-6.955799999999999761e-01 1.138663999999999987e+02 -9.609869000000000483e+01
-2.549230000000000107e+00 1.081727400000000046e+02 -9.501663000000000636e+01
-2.356910000000000061e+00 1.000117000000000047e+02 -9.505841999999999814e+01
-9.854399999999999826e-01 9.819096000000000402e+01 -9.553303999999999974e+01
-1.067099999999999937e+00 1.063269499999999965e+02 -9.561610000000000298e+01
-1.157980000000000009e+00 1.153832100000000054e+02 -9.584035000000000082e+01
-2.968869999999999898e+00 1.079751700000000056e+02 -9.522890999999999906e+01
-2.764380000000000059e+00 1.005381900000000002e+02 -9.594491999999999621e+01
-1.373650000000000038e+00 9.837369999999999948e+01 -9.534004000000000190e+01
-1.523779999999999912e+00 1.091255599999999930e+02 -9.698085000000000377e+01
-3.445829999999999949e+00 1.096481100000000026e+02 -9.481780000000000541e+01
-3.188610000000000166e+00 1.014631700000000052e+02 -9.495291000000000281e+01
-1.704949999999999966e+00 9.529355999999999938e+01 -9.419253000000000497e+01
-1.875439999999999996e+00 1.048229999999999933e+02 -9.577380999999999744e+01
-2.043689999999999785e+00 1.142267400000000066e+02 -9.565077999999999747e+01
-4.064000000000000057e+00 1.149399300000000039e+02 -9.629273000000000593e+01
-3.717830000000000190e+00 1.051493300000000062e+02 -9.536136999999999375e+01
-3.406060000000000088e+00 9.633176000000000272e+01 -9.451766000000000645e+01
-2.222220000000000084e+00 1.018429900000000004e+02 -9.603679999999999950e+01
-2.384999999999999787e+00 1.093030200000000036e+02 -9.524787000000000603e+01
-4.433089999999999975e+00 1.128296100000000024e+02 -9.567562999999999818e+01
-4.036109999999999864e+00 1.027258800000000036e+02 -9.503209999999999980e+01
-2.443779999999999841e+00 9.490671000000000390e+01 -9.456607999999999947e+01
-2.693810000000000038e+00 1.046168299999999931e+02 -9.597947999999999524e+01
-2.926200000000000134e+00 1.136419400000000053e+02 -9.632209000000000287e+01
-4.843189999999999884e+00 1.120490900000000067e+02 -9.502916999999999348e+01
-4.519210000000000171e+00 1.045538899999999956e+02 -9.597947999999999524e+01
-4.138419999999999987e+00 9.574415000000000475e+01 -9.508382000000000289e+01
-3.060449999999999893e+00 1.031174100000000067e+02 -9.611675999999999931e+01
-3.344230000000000036e+00 1.126789700000000067e+02 -9.589714999999999634e+01
-5.426689999999999792e+00 1.150727399999999960e+02 -9.606672000000000367e+01
-4.991209999999999702e+00 1.058383900000000040e+02 -9.603292999999999324e+01
-4.540680000000000049e+00 9.628497000000000128e+01 -9.451766000000000645e+01
-3.446289999999999853e+00 1.025369599999999934e+02 -9.672276999999999703e+01
-3.697830000000000172e+00 1.100209200000000038e+02 -9.590475000000000705e+01
-5.888150000000000439e+00 1.152386900000000054e+02 -9.584035000000000082e+01
-5.426000000000000156e+00 1.061937599999999975e+02 -9.561610000000000298e+01
-4.937660000000000160e+00 9.663631999999999778e+01 -9.413840000000000430e+01
-3.814550000000000107e+00 1.016068900000000070e+02 -9.623663000000000523e+01
-4.158140000000000391e+00 1.107590100000000035e+02 -9.656163999999999703e+01
-6.434660000000000046e+00 1.169228999999999985e+02 -9.533428000000000679e+01
-5.884059999999999846e+00 1.069181999999999988e+02 -9.477801999999999794e+01
-5.376920000000000144e+00 9.770296999999999343e+01 -9.445219000000000165e+01
-4.227820000000000356e+00 1.019356899999999939e+02 -9.732541999999999405e+01
-4.546170000000000044e+00 1.096113399999999984e+02 -9.633629999999999427e+01
-6.314829999999999721e+00 1.070798300000000012e+02 -9.456759999999999877e+01
-5.909900000000000375e+00 1.002134899999999931e+02 -9.614221999999999468e+01
-4.536719999999999864e+00 9.990632999999999697e+01 -9.653570000000000562e+01
-4.942099999999999937e+00 1.088334300000000070e+02 -9.719495000000000573e+01
-6.888259999999999827e+00 1.094857599999999991e+02 -9.481780000000000541e+01
-6.453899999999999970e+00 1.025817399999999964e+02 -9.652114000000000260e+01
-4.811819999999999986e+00 9.751282000000000494e+01 -9.610979000000000383e+01
-5.249249999999999972e+00 1.063774300000000039e+02 -9.691379999999999484e+01
-5.734549999999999592e+00 1.162120400000000018e+02 -9.780527999999999622e+01
-7.406010000000000204e+00 1.107719699999999960e+02 -9.481941000000000486e+01
-6.943389999999999951e+00 1.038524799999999999e+02 -9.659425000000000239e+01
-5.184669999999999668e+00 9.730454000000000292e+01 -9.630132000000000403e+01
-5.617530000000000356e+00 1.054285200000000060e+02 -9.644826999999999373e+01
-6.190859999999999808e+00 1.161886099999999971e+02 -9.780527999999999622e+01
-7.628840000000000288e+00 1.077462600000000066e+02 -9.522890999999999906e+01
-7.154499999999999638e+00 1.010468000000000046e+02 -9.663517000000000223e+01
-5.661509999999999820e+00 9.893958000000000652e+01 -9.603596000000000288e+01
-6.212970000000000326e+00 1.085769200000000012e+02 -9.740867000000000075e+01
-6.690769999999999662e+00 1.169267300000000063e+02 -9.688844000000000278e+01
-8.701069999999999638e+00 1.163998200000000054e+02 -9.579337999999999909e+01
-7.926389999999999603e+00 1.060364500000000021e+02 -9.561610000000000298e+01
-7.373310000000000031e+00 9.863746000000000436e+01 -9.623036000000000456e+01
-6.195770000000000444e+00 1.013000200000000035e+02 -9.643608000000000402e+01
-6.697370000000000267e+00 1.095009500000000031e+02 -9.633629999999999427e+01
-8.445429999999999993e+00 1.073093800000000044e+02 -9.565233999999999526e+01
-7.861489999999999867e+00 9.988975999999999544e+01 -9.633914000000000044e+01
-6.568870000000000431e+00 1.008962199999999996e+02 -9.683388999999999669e+01
-7.151340000000000252e+00 1.098426800000000014e+02 -9.742915999999999599e+01
-9.083399999999999253e+00 1.098963899999999967e+02 -9.568841999999999359e+01
-8.466710000000000846e+00 1.024352599999999995e+02 -9.652114000000000260e+01
-6.823610000000000397e+00 9.882144999999999868e+01 -9.751286000000000342e+01
-7.387769999999999726e+00 1.069917399999999930e+02 -9.758680999999999983e+01
-9.207359999999999545e+00 1.063089899999999943e+02 -9.519780000000000086e+01
-8.613070000000000448e+00 9.944727000000000317e+01 -9.673185999999999751e+01
-7.388729999999999798e+00 1.012199999999999989e+02 -9.643608000000000402e+01
-8.041600000000000747e+00 1.101638700000000028e+02 -9.699615000000000009e+01
-1.027072000000000074e+01 1.134043800000000033e+02 -9.609869000000000483e+01
-9.505829999999999558e+00 1.049589100000000030e+02 -9.665540000000000020e+01
-7.392269999999999897e+00 9.607116999999999507e+01 -9.597751999999999839e+01
-8.070729999999999293e+00 1.048884500000000060e+02 -9.686212999999999340e+01
-8.765299999999999869e+00 1.139152100000000019e+02 -9.719304999999999950e+01
-1.039508999999999972e+01 1.099685900000000061e+02 -9.547172000000000480e+01
-7.917910000000000004e+00 9.787614999999999554e+01 -9.553303999999999974e+01
-8.815409999999999968e+00 1.089704399999999964e+02 -9.676636999999999489e+01
-9.396119999999999806e+00 9.540037999999999840e+01 -9.362949000000000410e+01
-9.434730000000000061e+00 1.111914699999999954e+02 -9.721850999999999487e+01
-9.643290000000000362e+00 9.411938000000000670e+01 -9.204643000000000086e+01
-8.367490000000000094e+00 9.422017999999999915e+01 -8.917701999999999884e+01
-1.001057999999999915e+01 9.405979999999999563e+01 -8.917701999999999884e+01
-9.107860000000000511e+00 9.415806999999999505e+01 -9.348959999999999582e+01
-9.490940000000000154e+00 9.425457000000000107e+01 -8.155362999999999829e+01
-1.410851000000000077e+01 9.641579000000000121e+01 -9.630132000000000403e+01
-1.478383000000000003e+01 9.833378999999999337e+01 -9.712312000000000012e+01
-1.440451999999999977e+01 1.054979199999999935e+02 -9.842610000000000525e+01
-1.690869999999999962e+01 1.095396899999999931e+02 -9.656163999999999703e+01
-1.576232000000000077e+01 1.021130899999999997e+02 -9.740873999999999455e+01
-1.371327999999999925e+01 9.757506999999999664e+01 -9.661804999999999666e+01
-1.531950999999999929e+01 1.090039799999999985e+02 -9.742915999999999599e+01
-1.715956999999999866e+01 1.083412900000000008e+02 -9.786066999999999894e+01
-1.541979000000000077e+01 9.735675000000000523e+01 -9.514669000000000665e+01
-1.462284999999999968e+01 1.011628500000000059e+02 -9.712490999999999985e+01
-1.580206000000000088e+01 1.093208099999999945e+02 -9.699615000000000009e+01
-1.804101999999999961e+01 1.110814799999999991e+02 -9.765461999999999421e+01
-1.636073000000000022e+01 1.007356599999999958e+02 -9.583660000000000423e+01
-1.434657999999999944e+01 9.657162999999999897e+01 -9.610979000000000383e+01
-1.575947000000000031e+01 1.060822799999999972e+02 -9.758680999999999983e+01
-1.690054999999999907e+01 1.137632600000000025e+02 -9.629273000000000593e+01
-1.819585000000000008e+01 1.093200700000000012e+02 -9.809193999999999392e+01
-1.648232000000000141e+01 9.902527999999999508e+01 -9.614221999999999468e+01
-1.508435000000000059e+01 9.886516000000000304e+01 -9.653570000000000562e+01
-1.654476000000000013e+01 1.084368800000000022e+02 -9.786066999999999894e+01
-1.987647000000000119e+01 1.165884099999999961e+02 -9.706216999999999473e+01
-1.859260000000000090e+01 1.090576999999999970e+02 -9.830935999999999808e+01
-1.680749000000000137e+01 9.858684999999999832e+01 -9.653570000000000562e+01
-1.553100000000000058e+01 9.917892000000000507e+01 -9.614221999999999468e+01
-1.702977999999999881e+01 1.087499200000000030e+02 -9.742915999999999599e+01
-1.820735000000000170e+01 1.162697299999999956e+02 -9.619687999999999306e+01
-1.915288999999999930e+01 1.097411000000000030e+02 -9.743743999999999517e+01
-1.760635999999999868e+01 1.008798800000000000e+02 -9.692403000000000191e+01
-1.576990999999999943e+01 9.818048000000000286e+01 -9.712312000000000012e+01
-1.718646000000000029e+01 1.069996900000000011e+02 -9.783500999999999692e+01
-1.851313000000000031e+01 1.152592800000000040e+02 -9.734761000000000308e+01
-2.025270000000000081e+01 1.134113600000000019e+02 -9.761499999999999488e+01
-1.865645999999999916e+01 1.044727400000000017e+02 -9.733131000000000199e+01
-1.709676999999999936e+01 9.573873000000000388e+01 -9.649245999999999412e+01
-1.711694999999999922e+01 1.039580200000000048e+02 -9.816179999999999950e+01
-1.834547999999999845e+01 1.114193900000000070e+02 -9.721193999999999846e+01
-2.056082999999999927e+01 1.125804300000000069e+02 -9.696854000000000440e+01
-1.906657999999999831e+01 1.043986699999999956e+02 -9.733131000000000199e+01
-1.760013999999999967e+01 9.636918000000000006e+01 -9.719678000000000395e+01
-1.740334999999999965e+01 1.031685399999999930e+02 -9.748011999999999944e+01
-1.881458999999999904e+01 1.115344800000000021e+02 -9.699003999999999337e+01
-2.135347000000000151e+01 1.143772400000000005e+02 -9.780527999999999622e+01
-1.937085000000000079e+01 1.037575800000000044e+02 -9.795472999999999786e+01
-1.640055999999999869e+01 9.494912999999999670e+01 -9.597751999999999839e+01
-1.831445000000000078e+01 1.060293400000000048e+02 -9.868313000000000557e+01
-1.947920999999999836e+01 1.127726100000000002e+02 -9.696854000000000440e+01
-2.198132999999999981e+01 1.152301800000000043e+02 -9.665828999999999382e+01
-2.055418999999999841e+01 1.077488400000000013e+02 -9.786066999999999894e+01
-1.914433000000000007e+01 1.003580900000000042e+02 -9.861920000000000641e+01
-1.776000000000000156e+01 1.004656300000000044e+02 -9.732541999999999405e+01
-1.935892000000000124e+01 1.095104500000000058e+02 -9.765597999999999956e+01
-2.055225000000000080e+01 1.162609499999999940e+02 -9.573399000000000569e+01
-2.206820000000000093e+01 1.132671699999999930e+02 -9.738859999999999673e+01
-2.047285000000000110e+01 1.050788699999999949e+02 -9.779720000000000368e+01
-1.877066999999999908e+01 9.634229999999999450e+01 -9.700424999999999898e+01
-1.861754000000000175e+01 1.029563700000000068e+02 -9.748011999999999944e+01
-1.995845999999999876e+01 1.103717299999999994e+02 -9.655951000000000306e+01
-2.288566000000000145e+01 1.150539899999999989e+02 -9.665828999999999382e+01
-2.154538000000000153e+01 1.083159500000000008e+02 -9.852639000000000635e+01
-1.979157999999999973e+01 9.949898000000000309e+01 -9.792470000000000141e+01
-1.854850000000000065e+01 1.003230400000000060e+02 -9.732541999999999405e+01
-2.004712999999999923e+01 1.084286599999999936e+02 -9.721283999999999992e+01
-2.157149000000000072e+01 1.166734399999999994e+02 -9.659698000000000206e+01
-2.326160000000000139e+01 1.145903299999999945e+02 -9.711822999999999695e+01
-2.174549999999999983e+01 1.071217599999999948e+02 -9.829067000000000576e+01
-1.996290000000000120e+01 9.834041999999999462e+01 -9.762501000000000317e+01
-1.924696000000000140e+01 1.018616600000000005e+02 -9.850256000000000256e+01
-2.068324000000000140e+01 1.094629900000000049e+02 -9.743743999999999517e+01
-2.274313000000000073e+01 1.098224000000000018e+02 -9.809579999999999700e+01
-2.106093999999999866e+01 1.016994200000000035e+02 -9.829883999999999844e+01
-1.911721000000000004e+01 9.904152999999999452e+01 -9.852057999999999538e+01
-2.053892000000000095e+01 1.064070600000000013e+02 -9.783500999999999692e+01
-2.212437999999999860e+01 1.146209000000000060e+02 -9.734761000000000308e+01
-2.424031000000000091e+01 1.147802800000000047e+02 -9.821859000000000606e+01
-2.231328999999999851e+01 1.056556700000000006e+02 -9.825982999999999379e+01
-2.032094999999999985e+01 9.622172999999999377e+01 -9.681132999999999811e+01
-2.029919999999999902e+01 1.029900700000000029e+02 -9.857478000000000407e+01
-2.179924000000000106e+01 1.106006799999999970e+02 -9.743345999999999663e+01
-2.477185000000000059e+01 1.150603799999999950e+02 -9.775715999999999894e+01
-2.284946000000000055e+01 1.061312300000000022e+02 -9.762202000000000623e+01
-2.092907999999999902e+01 9.721147000000000560e+01 -9.712312000000000012e+01
-2.052176000000000045e+01 1.020062700000000007e+02 -9.809472999999999843e+01
-2.200904999999999845e+01 1.093990799999999979e+02 -9.721850999999999487e+01
-2.351328000000000173e+01 1.168760199999999969e+02 -9.589638999999999669e+01
-2.358476999999999890e+01 1.074933000000000050e+02 -9.895931000000000211e+01
-2.165870999999999924e+01 9.871483000000000629e+01 -9.832232999999999379e+01
-2.099032000000000053e+01 1.022568899999999985e+02 -9.919138999999999839e+01
-2.240005999999999986e+01 1.091246000000000009e+02 -9.743743999999999517e+01
-2.425936000000000092e+01 1.085301400000000029e+02 -9.765597999999999956e+01
-2.245548000000000144e+01 1.004600499999999954e+02 -9.781373999999999569e+01
-2.056325000000000003e+01 9.821663999999999817e+01 -9.762501000000000317e+01
-2.209469999999999956e+01 1.055313299999999970e+02 -9.695337999999999568e+01
-2.415538000000000096e+01 1.153737899999999996e+02 -9.596563000000000443e+01
-2.337603999999999971e+01 1.026826400000000064e+02 -9.967364999999999498e+01
-2.079915000000000092e+01 9.743416999999999462e+01 -9.692768999999999835e+01
-2.266418000000000177e+01 1.061709400000000016e+02 -9.762202000000000623e+01
-2.424980000000000047e+01 1.135988100000000003e+02 -9.647929000000000599e+01
-2.489329999999999998e+01 1.073970900000000057e+02 -9.874303000000000452e+01
-2.298198000000000008e+01 9.915106000000000108e+01 -9.901964999999999861e+01
-2.223489000000000004e+01 1.021926299999999941e+02 -9.898623999999999512e+01
-2.368406999999999840e+01 1.088531399999999962e+02 -9.743743999999999517e+01
-2.413680000000000092e+01 1.023052100000000024e+02 -9.988022999999999740e+01
-2.202916000000000096e+01 9.936710999999999672e+01 -9.901964999999999861e+01
-2.365829000000000093e+01 1.067156399999999934e+02 -9.829067000000000576e+01
-2.359266999999999825e+01 9.827057000000000642e+01 -9.832232999999999379e+01
-2.303680999999999912e+01 1.020148300000000035e+02 -9.898623999999999512e+01
-2.470405999999999835e+01 1.093979899999999930e+02 -9.809579999999999700e+01
-2.215574000000000154e+01 9.635057000000000471e+01 -9.770717999999999392e+01
-2.382556999999999903e+01 1.036123300000000000e+02 -9.712273000000000422e+01
-2.417683999999999855e+01 9.732979000000000269e+01 -9.911303999999999803e+01
-2.396979999999999933e+01 1.023967300000000051e+02 -9.836848000000000525e+01
-2.265849000000000046e+01 9.511038000000000636e+01 -9.738894999999999413e+01
-2.472050000000000125e+01 1.037658200000000051e+02 -9.821684000000000481e+01
-2.423676000000000030e+01 9.999183999999999628e+01 -9.931369999999999720e+01
-2.388288000000000011e+01 9.686867999999999768e+01 -9.821438999999999453e+01
-2.491470999999999947e+01 9.774430999999999869e+01 -9.852057999999999538e+01
-2.452149000000000001e+01 9.464717000000000269e+01 -9.738894999999999413e+01
-7.840480000000000338e+00 9.240263000000000204e+01 -5.337865000000000038e+01
-9.711399999999999366e+00 9.124866000000000099e+01 -5.306007000000000318e+01
-8.556259999999999977e+00 9.223367000000000360e+01 -5.356063000000000329e+01
-1.019909999999999961e+01 9.238227000000000544e+01 -5.301407999999999987e+01
-9.193659999999999499e+00 9.130227999999999611e+01 -5.306007000000000318e+01
-1.105105000000000004e+01 9.336990000000000123e+01 -5.314072999999999780e+01
-1.105386000000000024e+01 9.035240000000000293e+01 -5.431627000000000294e+01
-1.018294999999999995e+01 9.373569000000000528e+01 -6.407751000000000374e+01
-9.783350000000000435e+00 9.005727000000000260e+01 -5.309402000000000044e+01
-1.148799999999999955e+01 9.093685999999999581e+01 -5.324014999999999986e+01
-1.162593000000000032e+01 9.202872000000000696e+01 -5.912319000000000102e+01
-1.153198000000000079e+01 9.128498999999999342e+01 -6.385970999999999975e+01
-1.037396000000000029e+01 9.212309000000000481e+01 -6.461203999999999326e+01
-1.022944999999999993e+01 9.083980999999999995e+01 -5.751075999999999766e+01
-1.038894999999999946e+01 9.225620000000000687e+01 -5.319646000000000186e+01
-1.166580000000000084e+01 8.951582999999999402e+01 -5.362669999999999959e+01
-1.192685999999999957e+01 9.151905999999999608e+01 -5.984989999999999810e+01
-1.068413999999999930e+01 9.163987000000000194e+01 -6.349788999999999817e+01
-1.068412000000000006e+01 9.163966999999999530e+01 -5.804325999999999652e+01
-1.063868000000000080e+01 9.124990999999999985e+01 -5.287978999999999985e+01
-1.215989000000000075e+01 9.053144000000000347e+01 -5.377913000000000210e+01
-1.209340000000000082e+01 9.003641000000000361e+01 -5.840541999999999945e+01
-1.113270999999999944e+01 9.233351000000000397e+01 -6.240659000000000134e+01
-1.090770000000000017e+01 9.046734999999999616e+01 -5.608637000000000228e+01
-1.292478000000000016e+01 9.344338000000000477e+01 -5.258597999999999928e+01
-1.239803000000000033e+01 8.963506999999999891e+01 -5.520727999999999724e+01
-1.243371999999999922e+01 8.989309000000000083e+01 -6.037908999999999793e+01
-1.140353999999999957e+01 9.155312000000000694e+01 -6.349788999999999817e+01
-1.128491999999999962e+01 9.060075999999999397e+01 -5.769013000000000346e+01
-1.123516000000000048e+01 9.020126999999999384e+01 -5.255949999999999989e+01
-1.265680000000000049e+01 8.893129999999999313e+01 -5.241208999999999918e+01
-1.283238000000000056e+01 9.016503000000000156e+01 -5.804822999999999666e+01
-1.284863999999999962e+01 9.027926999999999680e+01 -6.328954000000000235e+01
-1.144909999999999961e+01 8.906586000000000070e+01 -6.000159000000000020e+01
-1.141447999999999929e+01 8.879657000000000266e+01 -5.486234999999999928e+01
-1.307041000000000075e+01 8.932155000000000200e+01 -5.362669999999999959e+01
-1.332877000000000045e+01 9.108717000000000041e+01 -6.021186999999999756e+01
-1.181345999999999918e+01 8.913102000000000658e+01 -6.162064000000000163e+01
-1.189978999999999942e+01 8.978237000000000023e+01 -5.697825000000000273e+01
-1.207066000000000017e+01 9.107153999999999883e+01 -5.287978999999999985e+01
-1.410784999999999911e+01 9.383759000000000583e+01 -5.363277000000000072e+01
-1.353101000000000020e+01 9.000078000000000600e+01 -5.626518000000000086e+01
-1.380863000000000085e+01 9.184730999999999312e+01 -6.258908000000000271e+01
-1.219178999999999924e+01 8.929200000000000159e+01 -6.307374999999999687e+01
-1.206221000000000032e+01 8.834296000000000504e+01 -5.732383999999999702e+01
-1.212420999999999971e+01 8.879706000000000188e+01 -5.276442999999999728e+01
-1.375544000000000011e+01 8.911191999999999780e+01 -5.380384999999999707e+01
-1.393393000000000015e+01 9.026819999999999311e+01 -5.948525999999999669e+01
-1.241423999999999950e+01 8.833190999999999349e+01 -5.909617999999999682e+01
-1.228090000000000082e+01 8.738312999999999420e+01 -5.312595000000000312e+01
-1.428904999999999959e+01 9.021752999999999645e+01 -5.572809999999999775e+01
-1.419626000000000055e+01 8.963164999999999338e+01 -6.037908999999999793e+01
-1.279302999999999990e+01 8.850392999999999688e+01 -6.232489000000000345e+01
-1.265127000000000024e+01 8.752317999999999643e+01 -5.660952000000000339e+01
-1.285078000000000031e+01 8.890346999999999866e+01 -5.241208999999999918e+01
-1.466050000000000075e+01 9.026707000000000392e+01 -5.359967000000000326e+01
-1.458187999999999995e+01 8.978303999999999974e+01 -5.822693999999999903e+01
-1.324239000000000033e+01 8.913898000000000366e+01 -5.768780000000000285e+01
-1.343820999999999977e+01 9.045711000000000013e+01 -5.359967000000000326e+01
-1.478691000000000066e+01 8.883929000000000542e+01 -5.398078999999999894e+01
-1.507563999999999993e+01 9.057398999999999489e+01 -6.057291000000000025e+01
-1.402748000000000062e+01 9.193827000000000282e+01 -6.240659000000000134e+01
-1.348706999999999923e+01 8.839634999999999820e+01 -5.503802999999999912e+01
-1.419693999999999967e+01 9.304895999999999390e+01 -5.295600999999999914e+01
-1.560251000000000055e+01 9.151883999999999730e+01 -5.319646000000000186e+01
-1.509706000000000081e+01 8.855407999999999902e+01 -5.626946999999999832e+01
-1.377694999999999936e+01 8.797773999999999717e+01 -5.749880000000000280e+01
-1.401476000000000077e+01 8.949643000000000370e+01 -5.309402000000000044e+01
-1.546593999999999980e+01 8.861584000000000572e+01 -5.415751999999999811e+01
-1.566325999999999929e+01 8.974640999999999735e+01 -5.984347999999999956e+01
-1.438072000000000017e+01 8.953164999999999907e+01 -5.680031000000000319e+01
-1.444807999999999915e+01 8.995104000000000610e+01 -5.220213999999999999e+01
-1.652864999999999895e+01 9.255737000000000592e+01 -5.314072999999999780e+01
-1.585008000000000017e+01 8.875753000000000270e+01 -5.573933000000000249e+01
-1.474046000000000056e+01 8.952469000000000676e+01 -5.858368999999999716e+01
-1.440356000000000058e+01 8.747857000000000482e+01 -5.243126000000000175e+01
-1.679745000000000132e+01 9.197408000000000072e+01 -5.406119999999999948e+01
-1.625130000000000052e+01 8.898364999999999725e+01 -5.715596000000000032e+01
-1.508344999999999914e+01 8.941594999999999516e+01 -5.680031000000000319e+01
-1.560458000000000034e+01 9.250526000000000693e+01 -5.350954000000000121e+01
-1.678310000000000102e+01 8.989660999999999547e+01 -5.359967000000000326e+01
-1.651772000000000062e+01 8.847512000000000398e+01 -5.786462999999999823e+01
-1.509324999999999939e+01 8.738062999999999647e+01 -5.433984999999999843e+01
-1.605637000000000114e+01 9.295647999999999911e+01 -5.258597999999999928e+01
-1.671511999999999887e+01 8.762372999999999479e+01 -5.346668999999999983e+01
